VERSION .7
FIELDS x y z intensity ignore
SIZE 4 4 4 4 4
TYPE F F F F I
COUNT 1 1 1 1 1
WIDTH 696
HEIGHT 1
POINTS 696
VIEWPOINT 0.05900321900844574 -0.07574359327554703 -0.2720370888710022 0.5081034302711487 0.4905165731906891 -0.5046494603157043 0.496541291475296
DATA ascii
7.328999996185303 -4.051000118255615 -0.16899999976158142 0.10999999940395355 15
14.069999694824219 -7.747000217437744 -0.5109999775886536 0.14000000059604645 17
14.128000259399414 -7.7210001945495605 -0.5130000114440918 0.17000000178813934 17
14.180000305175781 -7.691999912261963 -0.5139999985694885 0.28999999165534973 17
14.232000350952148 -7.663000106811523 -0.5149999856948853 0.0 17
14.303999900817871 -7.672999858856201 -0.5180000066757202 0.07999999821186066 17
33.874000549316406 -18.072999954223633 -1.503999948501587 0.07999999821186066 17
33.87799835205078 -17.93899917602539 -1.5010000467300415 0.15000000596046448 0
33.891998291015625 -17.809999465942383 -1.4989999532699585 0.23000000417232513 10
33.88199996948242 -17.66900062561035 -1.496000051498413 0.10000000149011612 10
33.88600158691406 -17.535999298095703 -1.4930000305175781 0.15000000596046448 10
33.87699890136719 -17.39699935913086 -1.4900000095367432 0.10000000149011612 10
33.867000579833984 -17.323999404907227 -1.4880000352859497 0.1599999964237213 10
33.85900115966797 -17.18600082397461 -1.4850000143051147 0.20999999344348907 10
33.85300064086914 -17.049999237060547 -1.4819999933242798 0.11999999731779099 8
13.270000457763672 -6.560999870300293 -0.45500001311302185 0.41999998688697815 8
13.26200008392334 -6.505000114440918 -0.453000009059906 0.5099999904632568 8
13.288000106811523 -6.466000080108643 -0.45399999618530273 0.5400000214576721 8
13.276000022888184 -6.434999942779541 -0.453000009059906 0.7400000095367432 8
13.364999771118164 -6.426000118255615 -0.4560000002384186 0.5 8
25.92300033569336 -12.291999816894531 -1.0720000267028809 0.5400000214576721 21
25.97800064086914 -12.218000411987305 -1.0729999542236328 0.20999999344348907 21
25.770000457763672 -12.020999908447266 -1.0609999895095825 0.17000000178813934 21
25.783000946044922 -11.977999687194824 -1.0609999895095825 0.5699999928474426 21
26.16900062561035 -12.057999610900879 -1.0779999494552612 0.20999999344348907 21
26.368999481201172 -12.050000190734863 -1.0859999656677246 0.38999998569488525 0
26.36400032043457 -11.947999954223633 -1.0839999914169312 0.12999999523162842 10
25.804000854492188 -11.595999717712402 -1.0549999475479126 0.5199999809265137 10
25.808000564575195 -11.5 -1.0529999732971191 0.0 10
33.97700119018555 -15.022000312805176 -1.4490000009536743 0.0 0
34.07699966430664 -15.001999855041504 -1.4520000219345093 0.0 10
34.14400100708008 -14.904000282287598 -1.4529999494552612 0.0 10
34.191001892089844 -14.795999526977539 -1.4529999494552612 0.0 10
34.27199935913086 -14.704000473022461 -1.4550000429153442 0.0 10
34.29199981689453 -14.585000038146973 -1.4539999961853027 0.0 0
34.38800048828125 -14.498000144958496 -1.4559999704360962 0.0 0
34.441001892089844 -14.392999649047852 -1.4570000171661377 0.0 0
34.51100158691406 -14.359000205993652 -1.4589999914169312 0.0 0
34.54100036621094 -14.244999885559082 -1.4579999446868896 0.0 15
34.625999450683594 -14.152999877929688 -1.4600000381469727 0.0 15
34.67399978637695 -14.045000076293945 -1.4600000381469727 0.0 12
34.75400161743164 -13.951000213623047 -1.4620000123977661 0.0 12
34.79199981689453 -13.83899974822998 -1.4620000123977661 0.0 10
34.895999908447266 -13.753999710083008 -1.465000033378601 0.0 10
34.935001373291016 -13.706000328063965 -1.465000033378601 0.0 10
35.042999267578125 -13.621000289916992 -1.468999981880188 0.0 10
35.12799835205078 -13.527999877929688 -1.4709999561309814 0.0 10
35.22800064086914 -13.439000129699707 -1.4730000495910645 0.0 10
35.29499816894531 -13.338000297546387 -1.475000023841858 0.0 10
35.388999938964844 -13.246000289916992 -1.4769999980926514 0.0 10
35.43600082397461 -13.13700008392334 -1.4769999980926514 0.0 10
35.48099899291992 -13.090999603271484 -1.4780000448226929 0.0 10
35.499000549316406 -12.970999717712402 -1.4769999980926514 0.0 10
35.54199981689453 -12.859999656677246 -1.4769999980926514 0.0 10
35.63999938964844 -12.769000053405762 -1.4800000190734863 0.0 10
35.6879997253418 -12.65999984741211 -1.4809999465942383 0.0 10
35.75699996948242 -12.557999610900879 -1.4819999933242798 0.0 10
35.82099914550781 -12.517000198364258 -1.4839999675750732 0.0 10
35.86000061035156 -12.404999732971191 -1.4839999675750732 0.0 10
35.96500015258789 -12.3149995803833 -1.4869999885559082 0.0 10
36.055999755859375 -12.220000267028809 -1.4900000095367432 0.0 10
36.13800048828125 -12.121000289916992 -1.4919999837875366 0.0 10
36.24399948120117 -12.029999732971191 -1.4950000047683716 0.0 10
36.30099868774414 -11.92199993133545 -1.496000051498413 0.0 10
36.319000244140625 -11.864999771118164 -1.496000051498413 0.0 10
26.445999145507812 -8.539999961853027 -1.031999945640564 0.0 15
36.39899826049805 -11.638999938964844 -1.496000051498413 0.0 15
27.21299934387207 -8.506999969482422 -1.065000057220459 0.0 10
36.5620002746582 -11.312000274658203 -1.4989999532699585 0.07000000029802322 21
20.572999954223633 -6.247000217437744 -0.753000020980835 0.4000000059604645 21
20.64299964904785 -6.126999855041504 -0.7540000081062317 0.44999998807907104 21
20.628999710083008 -6.052999973297119 -0.753000020980835 0.30000001192092896 21
20.621000289916992 -5.980000019073486 -0.7509999871253967 0.5600000023841858 21
20.687999725341797 -5.928999900817871 -0.7540000081062317 0.23999999463558197 21
20.722000122070312 -5.868000030517578 -0.7540000081062317 0.4099999964237213 21
20.805999755859375 -5.85699987411499 -0.7580000162124634 0.6499999761581421 21
21.000999450683594 -5.841000080108643 -0.765999972820282 0.0 21
37.055999755859375 -10.201000213623047 -1.50600004196167 0.0 10
37.084999084472656 -10.083999633789062 -1.50600004196167 0.0 10
37.073001861572266 -9.956000328063965 -1.503999948501587 0.0 10
37.07899856567383 -9.833000183105469 -1.503000020980835 0.0 10
26.775999069213867 -7.002999782562256 -1.0269999504089355 0.0 15
26.78700065612793 -6.960999965667725 -1.0269999504089355 0.0 10
37.14699935913086 -9.538999557495117 -1.5019999742507935 0.0 10
37.189998626708984 -9.425999641418457 -1.503000020980835 0.0 10
37.23500061035156 -9.312999725341797 -1.503999948501587 0.0 10
34.62099838256836 -8.541999816894531 -1.3819999694824219 0.0 15
37.345001220703125 -9.090999603271484 -1.50600004196167 0.0 15
35.35599899291992 -8.48799991607666 -1.4140000343322754 0.0 10
37.40299987792969 -8.918999671936035 -1.5069999694824219 0.0 10
37.505001068115234 -8.819000244140625 -1.5099999904632568 0.0 10
37.54199981689453 -8.70300006866455 -1.5099999904632568 0.0 10
37.59700012207031 -8.592000007629395 -1.5119999647140503 0.0 10
37.64699935913086 -8.479000091552734 -1.5130000114440918 0.0 10
37.69499969482422 -8.364999771118164 -1.5140000581741333 0.05000000074505806 10
14.067999839782715 -2.989000082015991 -0.4359999895095825 0.6600000262260437 12
14.215999603271484 -2.9749999046325684 -0.44200000166893005 0.0 10
37.90700149536133 -7.8520002365112305 -1.5180000066757202 0.0 10
37.94300079345703 -7.735000133514404 -1.5190000534057617 0.0 10
34.91400146484375 -7.000999927520752 -1.3799999952316284 0.0 15
38.060001373291016 -7.572000026702881 -1.5219999551773071 0.0 15
38.08700180053711 -7.453000068664551 -1.5230000019073486 0.0 3
38.11000061035156 -7.334000110626221 -1.5230000019073486 0.0 3
38.137001037597656 -7.215000152587891 -1.5230000019073486 0.0 3
38.17900085449219 -7.098999977111816 -1.5240000486373901 0.05000000074505806 3
25.1200008392334 -4.458000183105469 -0.9309999942779541 0.7400000095367432 15
25.066999435424805 -4.367000102996826 -0.9279999732971191 0.0 15
38.42599868774414 -6.584000110626221 -1.5299999713897705 0.0 0
38.45800018310547 -6.465000152587891 -1.531000018119812 0.0 0
38.47600173950195 -6.343999862670898 -1.531000018119812 0.0 0
38.57500076293945 -6.236000061035156 -1.534000039100647 0.0 0
38.599998474121094 -6.177999973297119 -1.534999966621399 0.0 15
35.79499816894531 -5.611999988555908 -1.4079999923706055 0.0 15
38.71699905395508 -5.947000026702881 -1.5390000343322754 0.05000000074505806 3
23.8439998626709 -3.4230000972747803 -0.8679999709129333 0.7400000095367432 15
23.88599967956543 -3.3519999980926514 -0.8690000176429749 0.0 0
38.834999084472656 -5.40500020980835 -1.5399999618530273 0.0 3
38.904998779296875 -5.289999961853027 -1.5429999828338623 0.0 3
20.60099983215332 -2.6570000648498535 -0.7200000286102295 0.0 3
38.94200134277344 -4.921000003814697 -1.5420000553131104 0.05000000074505806 3
22.20199966430664 -2.6530001163482666 -0.7910000085830688 0.15000000596046448 15
22.222000122070312 -2.619999885559082 -0.7919999957084656 0.07999999821186066 3
38.948001861572266 -4.48799991607666 -1.5399999618530273 0.0 3
39.04100036621094 -4.374000072479248 -1.5440000295639038 0.0 3
39.06999969482422 -4.252999782562256 -1.5440000295639038 0.0 3
39.09000015258789 -4.13100004196167 -1.5449999570846558 0.0 3
39.11000061035156 -4.008999824523926 -1.5449999570846558 0.0 3
39.14699935913086 -3.8889999389648438 -1.5460000038146973 0.0 3
39.14899826049805 -3.8269999027252197 -1.5460000038146973 0.0 3
39.152000427246094 -3.703000068664551 -1.5460000038146973 0.0 3
38.23099899291992 -3.49399995803833 -1.503999948501587 0.0 3
39.23099899291992 -3.4619998931884766 -1.5479999780654907 0.0 0
39.26100158691406 -3.3399999141693115 -1.5490000247955322 0.0 0
39.30500030517578 -3.2200000286102295 -1.5499999523162842 0.0 17
39.32699966430664 -3.0969998836517334 -1.5509999990463257 0.0 17
39.349998474121094 -3.0369999408721924 -1.5520000457763672 0.0 17
39.404998779296875 -2.9170000553131104 -1.5540000200271606 0.0 17
39.45199966430664 -2.7960000038146973 -1.555999994277954 0.0 17
11.201000213623047 -0.7039999961853027 -0.29600000381469727 0.15000000596046448 17
11.477999687194824 -0.6859999895095825 -0.30799999833106995 0.0 17
11.128000259399414 -0.6470000147819519 -0.2919999957084656 0.0 17
11.145999908447266 -0.5429999828338623 -0.2930000126361847 0.07999999821186066 17
11.62399959564209 -0.5299999713897705 -0.3140000104904175 0.17000000178813934 17
11.619999885559082 -0.49399998784065247 -0.3140000104904175 0.28999999165534973 17
11.61400032043457 -0.4569999873638153 -0.31299999356269836 0.28999999165534973 17
11.593999862670898 -0.43799999356269836 -0.31200000643730164 0.25 17
11.600000381469727 -0.4020000100135803 -0.31299999356269836 0.18000000715255737 17
11.586999893188477 -0.36500000953674316 -0.31200000643730164 0.18000000715255737 17
11.59000015258789 -0.328000009059906 -0.31200000643730164 0.46000000834465027 17
11.616999626159668 -0.2930000126361847 -0.31299999356269836 0.1899999976158142 17
11.727999687194824 -0.2590000033378601 -0.3179999887943268 0.3199999928474426 17
12.524999618530273 -0.23899999260902405 -0.3540000021457672 0.20000000298023224 17
12.541999816894531 -0.21899999678134918 -0.3540000021457672 0.2800000011920929 17
12.555999755859375 -0.18000000715255737 -0.35499998927116394 0.23999999463558197 17
12.586999893188477 -0.14100000262260437 -0.35600000619888306 0.3700000047683716 17
13.20300006866455 -0.1080000028014183 -0.3840000033378601 0.0 17
11.062999725341797 -0.050999999046325684 -0.2879999876022339 0.0 17
11.062999725341797 -0.017000000923871994 -0.2879999876022339 0.0 17
11.069000244140625 0.08500000089406967 -0.35199999809265137 0.12999999523162842 17
11.54800033569336 0.12600000202655792 -0.37700000405311584 0.11999999731779099 17
11.571000099182129 0.16300000250339508 -0.3779999911785126 0.3799999952316284 17
11.541000366210938 0.19900000095367432 -0.37599998712539673 0.0 17
11.666000366210938 0.23800000548362732 -0.382999986410141 0.0 17
12.098999977111816 0.2669999897480011 -0.40400001406669617 0.0 17
11.645000457763672 0.2919999957084656 -0.38199999928474426 0.07000000029802322 17
11.557999610900879 0.32600000500679016 -0.37700000405311584 0.14000000059604645 17
11.54699993133545 0.3619999885559082 -0.37700000405311584 0.0 17
11.5600004196167 0.39899998903274536 -0.37700000405311584 0.0 17
11.022000312805176 0.4490000009536743 -0.35100001096725464 0.0 17
11.07800006866455 0.5379999876022339 -0.3540000021457672 0.0 17
11.1899995803833 0.5789999961853027 -0.35899999737739563 0.0 17
12.322999954223633 0.7179999947547913 -0.41600000858306885 0.0 17
13.456999778747559 0.8289999961853027 -0.4740000069141388 0.0 17
13.380000114440918 0.8450000286102295 -0.4699999988079071 0.0 17
13.371000289916992 0.8870000243186951 -0.4690000116825104 0.0 0
34.564998626708984 2.443000078201294 -1.5360000133514404 0.0 2
34.553001403808594 2.5510001182556152 -1.5360000133514404 0.0 2
34.53300094604492 2.6589999198913574 -1.534999966621399 0.0 2
34.505001068115234 2.7660000324249268 -1.534000039100647 0.0 2
34.48400115966797 2.872999906539917 -1.534000039100647 0.0 2
34.472999572753906 2.927000045776367 -1.534000039100647 0.0 2
34.433998107910156 3.0320000648498535 -1.531999945640564 0.0 2
34.409000396728516 3.1389999389648438 -1.531000018119812 0.0 2
34.3849983215332 3.246000051498413 -1.531000018119812 0.0 2
34.33700180053711 3.3499999046325684 -1.5290000438690186 0.0 2
34.30400085449219 3.4560000896453857 -1.527999997138977 0.0 2
34.25699996948242 3.559999942779541 -1.5260000228881836 0.0 2
34.220001220703125 3.609999895095825 -1.5240000486373901 0.0 2
34.183998107910156 3.7149999141693115 -1.5230000019073486 0.0 2
34.16699981689453 3.822000026702881 -1.5230000019073486 0.0 2
34.12699890136719 3.9260001182556152 -1.5210000276565552 0.0 2
34.11199951171875 4.0329999923706055 -1.5210000276565552 0.0 2
34.112998962402344 4.142000198364258 -1.5219999551773071 0.0 2
34.13399887084961 4.252999782562256 -1.5240000486373901 0.0 2
34.17300033569336 4.311999797821045 -1.5260000228881836 0.0 2
34.196998596191406 4.425000190734863 -1.527999997138977 0.0 2
34.297000885009766 4.546999931335449 -1.534000039100647 0.0 2
34.31700134277344 4.659999847412109 -1.534999966621399 0.0 2
34.33300018310547 4.771999835968018 -1.5369999408721924 0.0 2
34.347999572753906 4.883999824523926 -1.5379999876022339 0.0 2
34.41899871826172 4.948999881744385 -1.5420000553131104 0.0 2
34.46500015258789 5.066999912261963 -1.5460000038146973 0.0 2
34.47800064086914 5.178999900817871 -1.5470000505447388 0.0 2
34.46799850463867 5.288000106811523 -1.5470000505447388 0.0 2
34.47700119018555 5.401000022888184 -1.5490000247955322 0.0 2
34.45000076293945 5.506999969482422 -1.5479999780654907 0.0 2
34.41999816894531 5.613999843597412 -1.5479999780654907 0.0 2
34.426998138427734 5.670000076293945 -1.5479999780654907 0.05000000074505806 2
19.52899932861328 3.3949999809265137 -0.7919999957084656 0.6000000238418579 12
19.402999877929688 3.434999942779541 -0.7860000133514404 0.0 2
34.50899887084961 6.242000102996826 -1.5570000410079956 0.0 2
34.48500061035156 6.349999904632568 -1.5570000410079956 0.0 2
34.457000732421875 6.401000022888184 -1.555999994277954 0.0 2
34.422000885009766 6.50600004196167 -1.5549999475479126 0.0 2
34.37699890136719 6.610000133514404 -1.5540000200271606 0.0 2
34.308998107910156 6.708000183105469 -1.5520000457763672 0.0 2
34.26900100708008 6.811999797821045 -1.5509999990463257 0.0 2
34.22200012207031 6.914999961853027 -1.5490000247955322 0.0 2
34.18199920654297 7.01800012588501 -1.5490000247955322 0.0 2
34.16299819946289 7.070000171661377 -1.5479999780654907 0.0 2
34.17599868774414 7.184999942779541 -1.5499999523162842 0.0 2
34.154998779296875 7.293000221252441 -1.5499999523162842 0.0 2
13.812000274658203 3.0239999294281006 -0.5070000290870667 0.18000000715255737 12
13.932999610900879 3.0969998836517334 -0.5130000114440918 0.0 0
34.132999420166016 7.73799991607666 -1.5540000200271606 0.0 2
34.15800094604492 7.800000190734863 -1.555999994277954 0.0 2
34.14699935913086 7.909999847412109 -1.555999994277954 0.0 2
34.10200119018555 8.012999534606934 -1.5549999475479126 0.0 2
34.04600143432617 8.11299991607666 -1.5540000200271606 0.0 2
33.98099899291992 8.210000038146973 -1.5520000457763672 0.0 2
33.93199920654297 8.310999870300293 -1.5509999990463257 0.0 2
33.91299819946289 8.36299991607666 -1.5499999523162842 0.0 2
33.88100051879883 8.468000411987305 -1.5499999523162842 0.0 2
33.875 8.579999923706055 -1.5509999990463257 0.0 2
33.84600067138672 8.685999870300293 -1.5509999990463257 0.0 2
33.85599899291992 8.802000045776367 -1.5529999732971191 0.0 2
33.88800048828125 8.923999786376953 -1.555999994277954 0.0 2
33.944000244140625 9.053000450134277 -1.559999942779541 0.0 5
33.93199920654297 9.107000350952148 -1.559999942779541 0.0 2
33.928001403808594 9.220000267028809 -1.562000036239624 0.0 2
33.904998779296875 9.32800006866455 -1.562000036239624 0.0 2
33.869998931884766 9.432999610900879 -1.562000036239624 0.0 2
33.8380012512207 9.538999557495117 -1.562000036239624 0.0 2
33.805999755859375 9.645000457763672 -1.562000036239624 0.0 2
33.75600051879883 9.744999885559082 -1.5609999895095825 0.0 2
33.71799850463867 9.791999816894531 -1.559000015258789 0.0 5
33.637001037597656 9.883000373840332 -1.5570000410079956 0.0 2
33.61199951171875 9.989999771118164 -1.5570000410079956 0.0 2
33.5989990234375 10.10099983215332 -1.5579999685287476 0.0 2
33.569000244140625 10.208000183105469 -1.5579999685287476 0.0 2
33.53900146484375 10.314000129699707 -1.5579999685287476 0.05000000074505806 2
10.847000122070312 3.4110000133514404 -0.36800000071525574 0.6200000047683716 12
10.574000358581543 3.3610000610351562 -0.3540000021457672 0.0 12
10.746000289916992 3.453000068664551 -0.3630000054836273 0.0 0
33.42599868774414 10.914999961853027 -1.562000036239624 0.0 2
33.40999984741211 11.026000022888184 -1.562999963760376 0.0 2
33.41699981689453 11.145000457763672 -1.565000057220459 0.0 2
33.42300033569336 11.204999923706055 -1.565999984741211 0.0 2
33.513999938964844 11.352999687194824 -1.5729999542236328 0.0 2
33.54199981689453 11.479999542236328 -1.5759999752044678 0.0 2
33.507999420166016 11.586000442504883 -1.5770000219345093 0.0 2
33.472999572753906 11.692000389099121 -1.5770000219345093 0.0 2
33.457000732421875 11.803999900817871 -1.5779999494552612 0.0 2
33.42300033569336 11.85099983215332 -1.5770000219345093 0.0 2
33.40299987792969 11.961999893188477 -1.5779999494552612 0.0 2
33.39699935913086 12.079000473022461 -1.5800000429153442 0.0 2
33.39099884033203 12.194999694824219 -1.5809999704360962 0.0 2
33.39400100708008 12.3149995803833 -1.5839999914169312 0.0 2
33.30099868774414 12.399999618530273 -1.5809999704360962 0.0 2
33.22600173950195 12.491000175476074 -1.5789999961853027 0.0 2
33.20399856567383 12.543000221252441 -1.5789999961853027 0.0 2
33.15399932861328 12.642999649047852 -1.5779999494552612 0.0 2
33.10599899291992 12.744000434875488 -1.5779999494552612 0.0 2
33.0359992980957 12.836000442504883 -1.5759999752044678 0.0 2
32.98500061035156 12.935999870300293 -1.5750000476837158 0.0 2
32.935001373291016 13.03499984741211 -1.5750000476837158 0.0 2
32.90999984741211 13.145999908447266 -1.5759999752044678 0.0 2
32.92499923706055 13.211000442504883 -1.5779999494552612 0.0 2
32.891998291015625 13.319000244140625 -1.5779999494552612 0.0 2
32.861000061035156 13.425999641418457 -1.5789999961853027 0.0 2
32.85599899291992 13.545000076293945 -1.5809999704360962 0.0 2
32.810001373291016 13.645999908447266 -1.5809999704360962 0.0 2
32.79999923706055 13.762999534606934 -1.5820000171661377 0.0 3
32.76499938964844 13.869999885559082 -1.5829999446868896 0.0 3
32.73400115966797 13.918000221252441 -1.5820000171661377 0.0 3
32.71099853515625 14.029000282287598 -1.5839999914169312 0.0 3
32.667999267578125 14.133000373840332 -1.5839999914169312 0.0 3
32.645999908447266 14.244999885559082 -1.5850000381469727 0.0 3
32.608001708984375 14.35099983215332 -1.5850000381469727 0.0 2
32.55400085449219 14.449000358581543 -1.5850000381469727 0.0 2
32.50600051879883 14.550000190734863 -1.5850000381469727 0.0 2
32.49399948120117 14.605999946594238 -1.5850000381469727 0.0 3
32.446998596191406 14.706999778747559 -1.5850000381469727 0.0 2
32.393001556396484 14.805999755859375 -1.5850000381469727 0.0 2
32.34299850463867 14.906000137329102 -1.5850000381469727 0.0 2
32.23899841308594 14.980999946594238 -1.5809999704360962 0.07000000029802322 2
32.15399932861328 15.0649995803833 -1.5789999961853027 0.07999999821186066 2
32.097999572753906 15.16100025177002 -1.5789999961853027 0.09000000357627869 2
32.07899856567383 15.21399974822998 -1.5789999961853027 0.09000000357627869 2
32.066001892089844 15.331000328063965 -1.5809999704360962 0.10999999940395355 2
20.579999923706055 9.98900032043457 -0.9449999928474426 0.5600000023841858 12
20.63800048828125 10.097999572753906 -0.949999988079071 0.0 2
31.88800048828125 15.741999626159668 -1.5820000171661377 0.0 2
31.871000289916992 15.795999526977539 -1.5820000171661377 0.0 2
31.83300018310547 15.902000427246094 -1.5829999446868896 0.0 2
31.79599952697754 16.007999420166016 -1.5839999914169312 0.0 2
31.732999801635742 16.101999282836914 -1.5829999446868896 0.0 2
31.666000366210938 16.19300079345703 -1.5820000171661377 0.0 2
31.672000885009766 16.32200050354004 -1.5850000381469727 0.0 2
31.670000076293945 16.44700050354004 -1.5880000591278076 0.0 2
31.663999557495117 16.506999969482422 -1.5889999866485596 0.0 2
31.613000869750977 16.60700035095215 -1.5889999866485596 0.0 2
31.533000946044922 16.691999435424805 -1.5880000591278076 0.0 2
31.49799919128418 16.799999237060547 -1.5889999866485596 0.0 2
31.382999420166016 16.865999221801758 -1.5850000381469727 0.0 2
31.268999099731445 16.930999755859375 -1.5820000171661377 0.0 2
31.152000427246094 16.993999481201172 -1.5779999494552612 0.0 2
31.124000549316406 17.04199981689453 -1.5779999494552612 0.0 2
31.083999633789062 17.148000717163086 -1.5789999961853027 0.0 2
30.992000579833984 17.224000930786133 -1.5770000219345093 0.0 2
30.95800018310547 17.33300018310547 -1.5779999494552612 0.0 2
30.906999588012695 17.43199920654297 -1.5779999494552612 0.0 2
30.878000259399414 17.54400062561035 -1.5800000429153442 0.0 2
30.85099983215332 17.656999588012695 -1.5809999704360962 0.0 2
30.81999969482422 17.702999114990234 -1.5809999704360962 0.0 2
30.763999938964844 17.799999237060547 -1.5809999704360962 0.0 2
30.757999420166016 17.926000595092773 -1.5839999914169312 0.0 2
30.711999893188477 18.027999877929688 -1.5850000381469727 0.0 2
30.66900062561035 18.132999420166016 -1.5850000381469727 0.0 2
30.607999801635742 18.226999282836914 -1.5850000381469727 0.0 2
30.56399917602539 18.33099937438965 -1.5859999656677246 0.0 2
30.54800033569336 18.386999130249023 -1.5870000123977661 0.0 2
30.483999252319336 18.479000091552734 -1.5859999656677246 0.0 2
30.441999435424805 18.583999633789062 -1.5870000123977661 0.0 2
30.392000198364258 18.684999465942383 -1.5880000591278076 0.0 2
30.33799934387207 18.784000396728516 -1.5880000591278076 0.0 2
30.28499984741211 18.882999420166016 -1.5880000591278076 0.0 2
30.263999938964844 18.93600082397461 -1.5889999866485596 0.0 2
30.222999572753906 19.042999267578125 -1.590000033378601 0.0 2
30.17300033569336 19.143999099731445 -1.590999960899353 0.0 2
30.131000518798828 19.250999450683594 -1.5920000076293945 0.0 2
30.08300018310547 19.35300064086914 -1.5920000076293945 0.0 2
30.052000045776367 19.466999053955078 -1.593999981880188 0.0 2
30.00200080871582 19.569000244140625 -1.5950000286102295 0.0 2
29.979999542236328 19.621000289916992 -1.5950000286102295 0.0 3
29.96299934387207 19.7450008392334 -1.5980000495910645 0.05000000074505806 3
27.374000549316406 18.15999984741211 -1.4459999799728394 0.17000000178813934 3
27.391000747680664 18.29599952697754 -1.4500000476837158 0.20000000298023224 3
27.426000595092773 18.444000244140625 -1.4559999704360962 0.27000001072883606 15
14.50100040435791 9.869999885559082 -0.6769999861717224 0.17000000178813934 0
14.508000373840332 9.907999992370605 -0.6790000200271606 0.17000000178813934 0
14.517000198364258 9.980999946594238 -0.6809999942779541 0.2800000011920929 0
14.520000457763672 10.050999641418457 -0.6830000281333923 0.20999999344348907 0
14.519000053405762 10.118000030517578 -0.6850000023841858 0.3400000035762787 0
27.054000854492188 19.006999969482422 -1.4570000171661377 0.0 3
26.795000076293945 18.951000213623047 -1.444000005722046 0.15000000596046448 3
26.79599952697754 19.077999114990234 -1.4479999542236328 0.20999999344348907 15
26.76300048828125 19.118000030517578 -1.4479999542236328 0.18000000715255737 3
21.006999969482422 15.098999977111816 -1.0950000286102295 0.25 8
20.952999114990234 15.16100025177002 -1.0950000286102295 0.4699999988079071 8
20.601999282836914 15.005000114440918 -1.0759999752044678 0.20000000298023224 8
13.451000213623047 9.850000381469727 -0.6340000033378601 0.5699999928474426 8
13.413000106811523 9.887999534606934 -0.6330000162124634 0.3199999928474426 8
13.378999710083008 9.928000450134277 -0.6330000162124634 0.47999998927116394 8
13.383000373840332 9.963000297546387 -0.6340000033378601 0.5400000214576721 8
19.979999542236328 14.98900032043457 -1.0509999990463257 0.3400000035762787 8
19.83799934387207 14.979000091552734 -1.0449999570846558 0.33000001311302185 8
19.725000381469727 14.991999626159668 -1.0410000085830688 0.3400000035762787 10
19.604000091552734 14.996000289916992 -1.0360000133514404 0.3100000023841858 10
19.476999282836914 14.996999740600586 -1.031000018119812 0.28999999165534973 10
19.357999801635742 15.001999855041504 -1.0260000228881836 0.3400000035762787 10
19.266000747680664 14.979000091552734 -1.0219999551773071 0.3100000023841858 10
19.134000778198242 14.972999572753906 -1.0160000324249268 0.36000001430511475 15
19.014999389648438 14.97599983215332 -1.0119999647140503 0.3400000035762787 10
18.893999099731445 14.977999687194824 -1.0069999694824219 0.3100000023841858 10
18.788000106811523 14.98900032043457 -1.003000020980835 0.36000001430511475 10
18.665000915527344 14.987000465393066 -0.9980000257492065 0.28999999165534973 10
18.573999404907227 14.961999893188477 -0.9940000176429749 0.3799999952316284 10
18.45400047302246 14.961000442504883 -0.9890000224113464 0.27000001072883606 15
18.341999053955078 14.965999603271484 -0.9850000143051147 0.36000001430511475 10
18.23900032043457 14.977999687194824 -0.9819999933242798 0.28999999165534973 10
18.118999481201172 14.973999977111816 -0.9769999980926514 0.3199999928474426 10
18.011999130249023 14.980999946594238 -0.9729999899864197 0.36000001430511475 10
18.427000045776367 -15.902999877929688 -1.0190000534057617 0.3799999952316284 10
18.54199981689453 -15.901000022888184 -1.0230000019073486 0.3400000035762787 10
18.62299919128418 -15.920000076293945 -1.0269999504089355 0.5199999809265137 10
18.749000549316406 -15.925999641418457 -1.031999945640564 0.4099999964237213 10
18.915000915527344 -15.96500015258789 -1.0390000343322754 0.25999999046325684 10
19.054000854492188 -15.979000091552734 -1.0449999570846558 0.20000000298023224 10
19.174999237060547 -15.977999687194824 -1.0499999523162842 0.4099999964237213 10
19.277000427246094 -15.961000442504883 -1.0529999732971191 0.23000000417232513 10
19.381000518798828 -15.944999694824219 -1.0570000410079956 0.18000000715255737 10
19.475000381469727 -15.970000267028809 -1.0609999895095825 0.4000000059604645 10
19.57900047302246 -15.95300006866455 -1.065000057220459 0.23999999463558197 10
19.67099952697754 -15.925000190734863 -1.0670000314712524 0.1899999976158142 10
19.791000366210938 -15.920000076293945 -1.0720000267028809 0.4099999964237213 10
19.895000457763672 -15.901000022888184 -1.0750000476837158 0.25 10
20.006000518798828 -15.88700008392334 -1.0789999961853027 0.25999999046325684 10
20.125 -15.878000259399414 -1.0839999914169312 0.27000001072883606 10
20.229000091552734 -15.907999992370605 -1.0889999866485596 0.25999999046325684 10
20.347999572753906 -15.89900016784668 -1.093000054359436 0.28999999165534973 17
20.461000442504883 -15.883999824523926 -1.097000002861023 0.30000001192092896 17
20.56100082397461 -15.857999801635742 -1.100000023841858 0.3199999928474426 17
17.59000015258789 -13.482999801635742 -0.9089999794960022 0.23000000417232513 17
20.777000427246094 -15.817000389099121 -1.1080000400543213 0.18000000715255737 17
20.856000900268555 -15.824999809265137 -1.1109999418258667 0.2800000011920929 17
20.972000122070312 -15.8100004196167 -1.1150000095367432 0.20999999344348907 17
21.101999282836914 -15.803999900817871 -1.1200000047683716 0.33000001311302185 17
21.219999313354492 -15.788999557495117 -1.125 0.0 17
18.027000427246094 -13.112000465393066 -0.9160000085830688 0.0 17
11.295999526977539 -7.776000022888184 -0.48500001430511475 0.07999999821186066 17
11.23799991607666 -7.684000015258789 -0.47999998927116394 0.07999999821186066 17
11.428999900817871 -7.709000110626221 -0.48899999260902405 0.0 17
11.218000411987305 -7.517000198364258 -0.4749999940395355 0.0 17
7.0980000495910645 -3.739000082015991 -0.20000000298023224 0.0 15
30.000999450683594 -15.470000267028809 -1.4910000562667847 0.0 10
29.9689998626709 -15.335000038146973 -1.4869999885559082 0.0 10
30.01300048828125 -15.29800033569336 -1.4880000352859497 0.0 10
30.072999954223633 -15.210000038146973 -1.4889999628067017 0.0 8
13.244999885559082 -6.559000015258789 -0.5389999747276306 0.3499999940395355 8
13.246000289916992 -6.507999897003174 -0.5379999876022339 0.36000001430511475 8
13.24899959564209 -6.458000183105469 -0.5370000004768372 0.5699999928474426 8
13.269000053405762 -6.441999912261963 -0.5370000004768372 0.38999998569488525 8
13.36299991607666 -6.435999870300293 -0.5410000085830688 0.6100000143051147 8
25.91900062561035 -12.354999542236328 -1.2380000352859497 0.20999999344348907 21
25.891000747680664 -12.241999626159668 -1.2339999675750732 0.0 21
30.413999557495117 -14.258999824523926 -1.4830000400543213 0.14000000059604645 21
25.757999420166016 -11.883999824523926 -1.2209999561309814 0.46000000834465027 21
18.826000213623047 -8.656999588012695 -0.8370000123977661 0.2800000011920929 21
18.923999786376953 -8.630000114440918 -0.8410000205039978 0.20000000298023224 0
18.990999221801758 -8.58899974822998 -0.8429999947547913 0.23000000417232513 0
19.073999404907227 -8.555000305175781 -0.8460000157356262 0.20000000298023224 0
19.1299991607666 -8.508000373840332 -0.8479999899864197 0.17000000178813934 0
19.190000534057617 -8.461999893188477 -0.8500000238418579 0.38999998569488525 0
19.250999450683594 -8.416999816894531 -0.8519999980926514 0.23000000417232513 0
19.290000915527344 -8.39799976348877 -0.8529999852180481 0.25999999046325684 0
19.35700035095215 -8.354000091552734 -0.8550000190734863 0.25999999046325684 0
19.429000854492188 -8.312999725341797 -0.8579999804496765 0.28999999165534973 0
19.542999267578125 -8.288999557495117 -0.8619999885559082 0.25 0
19.548999786376953 -8.218999862670898 -0.8610000014305115 0.0 0
19.78499984741211 -8.244999885559082 -0.8730000257492065 0.0 0
31.02199935913086 -12.79800033569336 -1.4809999465942383 0.0 2
31.020000457763672 -12.741000175476074 -1.4800000190734863 0.0 2
31.086000442504883 -12.654000282287598 -1.4819999933242798 0.0 2
31.159000396728516 -12.569000244140625 -1.4830000400543213 0.0 2
31.240999221801758 -12.48799991607666 -1.4859999418258667 0.0 2
31.295000076293945 -12.395999908447266 -1.4869999885559082 0.0 2
31.417999267578125 -12.329999923706055 -1.4910000562667847 0.0 2
31.472000122070312 -12.295000076293945 -1.4930000305175781 0.0 2
31.54800033569336 -12.210000038146973 -1.4950000047683716 0.0 2
31.659000396728516 -12.138999938964844 -1.4989999532699585 0.0 2
31.641000747680664 -12.017999649047852 -1.496000051498413 0.0 2
31.707000732421875 -11.928999900817871 -1.496999979019165 0.0 2
31.799999237060547 -11.850000381469727 -1.5 0.0 2
31.836999893188477 -11.75100040435791 -1.5 0.0 2
31.89699935913086 -11.715999603271484 -1.503000020980835 0.0 2
31.986000061035156 -11.633999824523926 -1.5049999952316284 0.0 2
32.047000885009766 -11.543000221252441 -1.5069999694824219 0.0 2
32.08700180053711 -11.442999839782715 -1.5069999694824219 0.0 2
32.15599822998047 -11.354000091552734 -1.5089999437332153 0.0 2
32.21799850463867 -11.26200008392334 -1.5099999904632568 0.0 2
32.25899887084961 -11.163000106811523 -1.5099999904632568 0.0 2
32.31399917602539 -11.125 -1.5119999647140503 0.0 2
32.42300033569336 -11.048999786376953 -1.5160000324249268 0.0 2
32.53900146484375 -10.973999977111816 -1.5210000276565552 0.0 2
32.64500045776367 -10.895999908447266 -1.5240000486373901 0.0 2
32.7400016784668 -10.814000129699707 -1.527999997138977 0.0 2
32.83100128173828 -10.729000091552734 -1.531000018119812 0.0 2
32.930999755859375 -10.647000312805176 -1.534000039100647 0.14000000059604645 15
26.427000045776367 -8.503999710083008 -1.190000057220459 0.0 15
33.15999984741211 -10.548999786376953 -1.5440000295639038 0.0 15
33.20000076293945 -10.446999549865723 -1.5440000295639038 0.14000000059604645 15
27.187999725341797 -8.465999603271484 -1.2259999513626099 0.0 0
33.41999816894531 -10.28600025177002 -1.5520000457763672 0.0 21
20.486000061035156 -6.175000190734863 -0.8709999918937683 0.10999999940395355 21
20.672000885009766 -6.125 -0.8790000081062317 0.4099999964237213 21
20.87700080871582 -6.113999843597412 -0.8889999985694885 0.5799999833106995 21
20.714000701904297 -5.995999813079834 -0.8790000081062317 0.23000000417232513 21
20.672000885009766 -5.8429999351501465 -0.875 0.3199999928474426 21
20.639999389648438 -5.763999938964844 -0.8730000257492065 0.6299999952316284 21
20.927000045776367 -5.809000015258789 -0.8870000243186951 0.0 21
33.70500183105469 -9.225000381469727 -1.5509999990463257 0.0 2
33.770999908447266 -9.128999710083008 -1.5529999732971191 0.0 2
33.803001403808594 -9.02400016784668 -1.5529999732971191 0.0 2
33.845001220703125 -8.920999526977539 -1.5540000200271606 0.0 15
26.733999252319336 -6.9629998207092285 -1.184000015258789 0.0 15
26.757999420166016 -6.879000186920166 -1.184000015258789 0.07000000029802322 2
33.94499969482422 -8.663000106811523 -1.5549999475479126 0.07999999821186066 2
34.000999450683594 -8.564000129699707 -1.5570000410079956 0.14000000059604645 2
34.0260009765625 -8.456000328063965 -1.5570000410079956 0.09000000357627869 15
34.05799865722656 -8.35099983215332 -1.5570000410079956 0.09000000357627869 15
34.117000579833984 -8.251999855041504 -1.559000015258789 0.15000000596046448 2
34.1349983215332 -8.142999649047852 -1.5579999685287476 0.23000000417232513 2
34.17499923706055 -8.095000267028809 -1.559999942779541 0.10999999940395355 2
34.185001373291016 -7.984000205993652 -1.559000015258789 0.14000000059604645 2
34.224998474121094 -7.88100004196167 -1.559999942779541 0.10000000149011612 2
34.26499938964844 -7.7769999504089355 -1.5609999895095825 0.12999999523162842 2
34.30500030517578 -7.671999931335449 -1.5609999895095825 0.2199999988079071 2
34.345001220703125 -7.567999839782715 -1.562000036239624 0.10999999940395355 2
34.37200164794922 -7.460999965667725 -1.562000036239624 0.1599999964237213 12
13.95300006866455 -2.9760000705718994 -0.5130000114440918 0.23000000417232513 12
14.192999839782715 -2.9800000190734863 -0.5249999761581421 0.38999998569488525 10
34.470001220703125 -7.085999965667725 -1.562999963760376 0.1599999964237213 2
34.4900016784668 -6.9770002365112305 -1.562999963760376 0.17000000178813934 15
34.46099853515625 -6.859000205993652 -1.5609999895095825 0.23000000417232513 2
34.47600173950195 -6.806000232696533 -1.5609999895095825 0.10999999940395355 2
34.49700164794922 -6.697000026702881 -1.5609999895095825 0.14000000059604645 2
34.52199935913086 -6.590000152587891 -1.5609999895095825 0.09000000357627869 2
34.52000045776367 -6.4770002365112305 -1.559999942779541 0.09000000357627869 2
34.56999969482422 -6.374000072479248 -1.5609999895095825 0.09000000357627869 2
34.5880012512207 -6.264999866485596 -1.5609999895095825 0.15000000596046448 0
34.643001556396484 -6.163000106811523 -1.562999963760376 0.10999999940395355 15
24.913999557495117 -4.39900016784668 -1.0670000314712524 0.14000000059604645 15
34.66999816894531 -5.999000072479248 -1.562999963760376 0.09000000357627869 2
34.744998931884766 -5.900000095367432 -1.565999984741211 0.15000000596046448 2
34.8129997253418 -5.798999786376953 -1.5679999589920044 0.09000000357627869 2
34.87799835205078 -5.697000026702881 -1.5709999799728394 0.14000000059604645 2
34.91400146484375 -5.590000152587891 -1.5720000267028809 0.10000000149011612 2
34.94499969482422 -5.482999801635742 -1.5720000267028809 0.0 2
34.97700119018555 -5.431000232696533 -1.5740000009536743 0.0 2
35.04199981689453 -5.328999996185303 -1.5759999752044678 0.0 2
35.082000732421875 -5.2220001220703125 -1.5770000219345093 0.0 2
23.621000289916992 -3.372999906539917 -0.9950000047683716 0.15000000596046448 15
19.16699981689453 -2.61899995803833 -0.7680000066757202 0.0 3
20.42300033569336 -2.625999927520752 -0.8299999833106995 0.1899999976158142 3
20.51799964904785 -2.572999954223633 -0.8349999785423279 0.09000000357627869 3
22.340999603271484 -2.6559998989105225 -0.9259999990463257 0.0 15
34.97100067138672 -4.0320000648498535 -1.5640000104904175 0.0 2
34.95199966430664 -3.9739999771118164 -1.562999963760376 0.0 2
34.93000030517578 -3.859999895095825 -1.5609999895095825 0.0 2
34.97999954223633 -3.755000114440918 -1.562999963760376 0.0 2
35.027000427246094 -3.6489999294281006 -1.565000057220459 0.0 2
35.0620002746582 -3.5409998893737793 -1.565999984741211 0.0 2
35.095001220703125 -3.433000087738037 -1.5670000314712524 0.0 2
35.13600158691406 -3.38100004196167 -1.569000005722046 0.0 2
35.159000396728516 -3.2720000743865967 -1.569000005722046 0.0 2
35.1510009765625 -3.1600000858306885 -1.5679999589920044 0.0 2
35.17900085449219 -3.0510001182556152 -1.569000005722046 0.0 2
35.20399856567383 -2.941999912261963 -1.5700000524520874 0.0 2
35.21900177001953 -2.8310000896453857 -1.5700000524520874 0.0 2
13.277000427246094 -1.0420000553131104 -0.4650000035762787 0.0 3
11.192999839782715 -0.7590000033378601 -0.36000001430511475 0.0 17
11.161999702453613 -0.7210000157356262 -0.3580000102519989 0.0 17
11.133999824523926 -0.6840000152587891 -0.3569999933242798 0.0 17
11.055999755859375 -0.6449999809265137 -0.3529999852180481 0.0 17
11.579999923706055 -0.546999990940094 -0.3790000081062317 0.10999999940395355 17
11.557000160217285 -0.5090000033378601 -0.3779999911785126 0.1599999964237213 17
11.572999954223633 -0.4740000069141388 -0.3779999911785126 0.14000000059604645 17
12.467000007629395 -0.4690000116825104 -0.4230000078678131 0.0 17
11.66100025177002 -0.421999990940094 -0.382999986410141 0.07000000029802322 17
11.67199993133545 -0.38600000739097595 -0.382999986410141 0.09000000357627869 17
11.597000122070312 -0.34700000286102295 -0.3790000081062317 0.12999999523162842 17
11.557999610900879 -0.3089999854564667 -0.37700000405311584 0.23000000417232513 17
11.54699993133545 -0.27300000190734863 -0.37700000405311584 0.10000000149011612 17
11.694000244140625 -0.23899999260902405 -0.3840000033378601 0.17000000178813934 17
12.532999992370605 -0.2150000035762787 -0.4259999990463257 0.1599999964237213 17
12.527999877929688 -0.19499999284744263 -0.4259999990463257 0.1599999964237213 17
12.545999526977539 -0.15600000321865082 -0.4269999861717224 0.0 17
11.031000137329102 -0.07100000232458115 -0.35100001096725464 0.0 17
11.027999877929688 0.0 -0.42100000381469727 0.12999999523162842 17
11.020000457763672 0.03500000014901161 -0.41999998688697815 0.1599999964237213 17
11.022000312805176 0.0689999982714653 -0.41999998688697815 0.0 17
11.095000267028809 0.08699999749660492 -0.42399999499320984 0.14000000059604645 17
12.480999946594238 0.1340000033378601 -0.503000020980835 0.0 17
11.767999649047852 0.16500000655651093 -0.46299999952316284 0.07000000029802322 17
11.593000411987305 0.19900000095367432 -0.453000009059906 0.0 17
11.560999870300293 0.23499999940395355 -0.45100000500679016 0.0 17
11.562000274658203 0.2709999978542328 -0.45100000500679016 0.0 17
11.583000183105469 0.30799999833106995 -0.4519999921321869 0.0 17
11.562000274658203 0.32600000500679016 -0.45100000500679016 0.09000000357627869 17
12.4399995803833 0.3880000114440918 -0.5009999871253967 0.1599999964237213 17
12.484000205993652 0.42800000309944153 -0.503000020980835 0.18000000715255737 17
12.48900032043457 0.46799999475479126 -0.5040000081062317 0.14000000059604645 17
12.505000114440918 0.5080000162124634 -0.5049999952316284 0.0 17
11.059000015258789 0.5740000009536743 -0.4230000078678131 0.20999999344348907 17
11.123000144958496 0.6119999885559082 -0.4269999861717224 0.0 17
11.128999710083008 0.6470000147819519 -0.4269999861717224 0.0 17
11.770999908447266 0.7200000286102295 -0.46399998664855957 0.0 17
13.435999870300293 0.8610000014305115 -0.5580000281333923 0.0 2
31.207000732421875 2.062999963760376 -1.565000057220459 0.0 2
31.233999252319336 2.114000082015991 -1.5670000314712524 0.0 2
31.21500015258789 2.2119998931884766 -1.565999984741211 0.0 2
31.200000762939453 2.309000015258789 -1.565999984741211 0.0 2
31.184999465942383 2.4070000648498535 -1.565999984741211 0.0 2
31.17300033569336 2.503999948501587 -1.565000057220459 0.0 2
31.16699981689453 2.6019999980926514 -1.565000057220459 0.0 2
31.138999938964844 2.697999954223633 -1.5640000104904175 0.0 2
31.12299919128418 2.746000051498413 -1.5640000104904175 0.0 2
31.09600067138672 2.8420000076293945 -1.562999963760376 0.0 2
31.08300018310547 2.940000057220459 -1.562000036239624 0.0 2
31.082000732421875 3.0380001068115234 -1.562999963760376 0.0 2
31.04599952697754 3.132999897003174 -1.5609999895095825 0.0 2
31.020000457763672 3.2290000915527344 -1.559999942779541 0.0 2
31.02899932861328 3.2790000438690186 -1.5609999895095825 0.0 2
31.016000747680664 3.377000093460083 -1.5609999895095825 0.0 2
31.02400016784668 3.4760000705718994 -1.562000036239624 0.0 2
31.02400016784668 3.575000047683716 -1.562999963760376 0.0 2
31.01099967956543 3.671999931335449 -1.562999963760376 0.0 2
31.003000259399414 3.7699999809265137 -1.562999963760376 0.0 2
30.999000549316406 3.868000030517578 -1.562999963760376 0.0 2
31.006999969482422 3.9189999103546143 -1.5640000104904175 0.0 2
31.006000518798828 4.01800012588501 -1.565000057220459 0.0 2
30.993999481201172 4.114999771118164 -1.565000057220459 0.0 2
30.996000289916992 4.214000225067139 -1.565999984741211 0.0 2
31.017000198364258 4.315999984741211 -1.5679999589920044 0.0 2
31.04199981689453 4.419000148773193 -1.5700000524520874 0.0 2
31.06399917602539 4.521999835968018 -1.5720000267028809 0.0 2
31.07699966430664 4.573999881744385 -1.5729999542236328 0.0 2
31.086000442504883 4.675000190734863 -1.5740000009536743 0.0 2
31.094999313354492 4.776000022888184 -1.5759999752044678 0.0 2
31.114999771118164 4.879000186920166 -1.5779999494552612 0.0 2
31.12299919128418 4.980999946594238 -1.5789999961853027 0.0 2
31.06599998474121 5.072000026702881 -1.5770000219345093 0.0 2
31.025999069213867 5.165999889373779 -1.5750000476837158 0.0 2
19.538000106811523 3.3570001125335693 -0.9179999828338623 0.25 12
19.79800033569336 3.4660000801086426 -0.9340000152587891 0.0 2
30.85700035095215 5.486999988555908 -1.569000005722046 0.0 2
30.895000457763672 5.593999862670898 -1.5720000267028809 0.0 2
30.95400047302246 5.704999923706055 -1.5770000219345093 0.0 2
30.981000900268555 5.809999942779541 -1.5789999961853027 0.0 2
31.027000427246094 5.86899995803833 -1.5820000171661377 0.0 2
31.035999298095703 5.9720001220703125 -1.5839999914169312 0.0 2
31.035999298095703 6.072999954223633 -1.5850000381469727 0.0 2
31.024999618530273 6.171999931335449 -1.5859999656677246 0.0 2
31.006999969482422 6.269999980926514 -1.5859999656677246 0.0 2
30.972000122070312 6.364999771118164 -1.5850000381469727 0.0 2
30.961999893188477 6.413000106811523 -1.5850000381469727 0.0 2
30.937999725341797 6.510000228881836 -1.5850000381469727 0.0 2
30.905000686645508 6.604000091552734 -1.5839999914169312 0.10999999940395355 2
13.819999694824219 3.013000011444092 -0.597000002861023 0.11999999731779099 12
13.98799991607666 3.0959999561309814 -0.6069999933242798 0.0 12
30.7810001373291 6.881999969482422 -1.5800000429153442 0.0 2
30.777000427246094 6.98199987411499 -1.5809999704360962 0.0 2
30.78499984741211 7.034999847412109 -1.5829999446868896 0.0 2
30.81599998474121 7.144000053405762 -1.5859999656677246 0.0 2
30.836000442504883 7.250999927520752 -1.5880000591278076 0.0 2
30.87299919128418 7.361999988555908 -1.5920000076293945 0.0 2
30.860000610351562 7.460999965667725 -1.5920000076293945 0.0 2
30.827999114990234 7.556000232696533 -1.5920000076293945 0.0 2
30.78700065612793 7.64900016784668 -1.590999960899353 0.0 2
30.7810001373291 7.698999881744385 -1.590999960899353 0.0 2
30.760000228881836 7.796000003814697 -1.590999960899353 0.0 2
30.7549991607666 7.8979997634887695 -1.5920000076293945 0.0 2
30.749000549316406 7.999000072479248 -1.593999981880188 0.0 2
30.733999252319336 8.097999572753906 -1.593999981880188 0.0 2
30.70400047302246 8.194000244140625 -1.593999981880188 0.0 2
30.652999877929688 8.284000396728516 -1.5920000076293945 0.0 2
30.632999420166016 8.329999923706055 -1.5920000076293945 0.0 2
30.549999237060547 8.40999984741211 -1.5889999866485596 0.0 2
30.506000518798828 8.501999855041504 -1.5880000591278076 0.0 2
30.474000930786133 8.595999717712402 -1.5870000123977661 0.0 2
30.423999786376953 8.6850004196167 -1.5859999656677246 0.0 2
30.381000518798828 8.776000022888184 -1.5850000381469727 0.0 2
30.381999969482422 8.880000114440918 -1.5870000123977661 0.0 2
30.447999954223633 8.951000213623047 -1.590999960899353 0.0 2
30.47800064086914 9.064000129699707 -1.5950000286102295 0.0 2
30.53499984741211 9.1850004196167 -1.600000023841858 0.0 2
30.472000122070312 9.270999908447266 -1.5980000495910645 0.05000000074505806 2
10.812999725341797 3.4000000953674316 -0.43799999356269836 0.6399999856948853 12
10.616000175476074 3.375999927520752 -0.4269999861717224 0.0 12
30.37700080871582 9.713000297546387 -1.600000023841858 0.0 12
30.360000610351562 9.812999725341797 -1.6009999513626099 0.0 2
30.312000274658203 9.902999877929688 -1.600000023841858 0.0 2
30.28499984741211 9.99899959564209 -1.600000023841858 0.0 2
30.250999450683594 10.093999862670898 -1.600000023841858 0.0 2
30.23900032043457 10.142000198364258 -1.600000023841858 0.0 2
30.202999114990234 10.236000061035156 -1.600000023841858 0.0 2
30.15399932861328 10.324999809265137 -1.5989999771118164 0.0 2
30.107999801635742 10.414999961853027 -1.5980000495910645 0.0 2
30.075000762939453 10.510000228881836 -1.5980000495910645 0.0 2
30.04599952697754 10.604999542236328 -1.5989999771118164 0.0 2
30.011999130249023 10.699999809265137 -1.5989999771118164 0.0 2
29.993999481201172 10.746000289916992 -1.5980000495910645 0.0 2
29.950000762939453 10.836999893188477 -1.5980000495910645 0.0 2
29.91200065612793 10.930000305175781 -1.5980000495910645 0.0 2
29.8799991607666 11.02400016784668 -1.5980000495910645 0.0 2
29.856000900268555 11.121999740600586 -1.5980000495910645 0.0 2
29.819000244140625 11.21500015258789 -1.5980000495910645 0.0 2
29.770999908447266 11.303999900817871 -1.5980000495910645 0.0 3
29.759000778198242 11.352999687194824 -1.5980000495910645 0.0 3
29.7450008392334 11.454999923706055 -1.5989999771118164 0.0 3
29.711000442504883 11.548999786376953 -1.5989999771118164 0.0 3
29.68000030517578 11.645000457763672 -1.600000023841858 0.0 3
29.64699935913086 11.73900032043457 -1.600000023841858 0.0 3
29.606000900268555 11.831000328063965 -1.600000023841858 0.0 3
29.593000411987305 11.932999610900879 -1.6009999513626099 0.0 3
29.606000900268555 11.993000030517578 -1.6030000448226929 0.0 3
29.59000015258789 12.095000267028809 -1.6039999723434448 0.0 3
29.569000244140625 12.194000244140625 -1.6050000190734863 0.0 3
29.555999755859375 12.29800033569336 -1.6069999933242798 0.0 3
29.47100067138672 12.371000289916992 -1.6039999723434448 0.0 3
29.38800048828125 12.444999694824219 -1.6019999980926514 0.0 3
29.32699966430664 12.527999877929688 -1.600000023841858 0.0 3
29.299999237060547 12.571000099182129 -1.600000023841858 0.0 3
29.250999450683594 12.659000396728516 -1.5989999771118164 0.0 3
29.21500015258789 12.753000259399414 -1.5989999771118164 0.0 3
